# 3D point list with one line of data per point:
#   POINT3D_ID, X, Y, Z, R, G, B, ERROR, TRACK[] as (IMAGE_ID, POINT2D_IDX)
# Number of points: 357, mean track length: 4.3830058417419009
434 2.19814142706048 0.94807891703349245 6.5764861026677446 87 50 34 2.1289265852190051 24 20 22 82 15 63
435 3.9483706674669072 1.3507799630995698 5.8481176798542736 81 35 15 1.476578273760514 19 81 24 40 18 48 23 47 22 81 15 91 21 89 16 80
436 4.2986181908569518 -2.2284890063298128 6.2514208934901578 197 188 174 1.6315503737857846 24 48 12 42 23 51 5 53
437 3.4982265283602487 -1.8083286373367713 5.3236379222802714 66 40 23 0.98991631281461234 24 37 15 57 19 53
438 2.2207542774823699 -1.0389393317167801 5.9999764943359049 66 40 23 1.2048102011148987 22 29 15 30 21 31 19 16
439 3.1916620254141224 -0.62798312821653912 5.2635048382370861 79 33 7 1.3843142243500808 24 50 18 54 23 56 22 47 15 60 21 55 19 47 5 52
440 4.1814941911678254 -0.13357307442951066 5.2351810862477919 124 82 60 1.0202538144067972 24 54 18 55 22 67 15 79 19 94 21 97 16 92
441 2.0209340447073312 -0.045710034880117739 6.5435572611743975 178 156 131 1.9905270499512921 18 56 22 62 21 66
442 4.0586322416662304 1.0927673909979265 5.9723999905805298 135 101 89 1.4185301640522243 24 57 18 58 23 45 22 50 15 38 21 39 19 34 12 46 5 49
443 3.0614519233558042 2.3692953857801555 6.2832471469684998 131 89 69 1.1372241950699327 24 39 18 61 23 55 22 44 19 20
444 3.8673798497089553 -0.74734411589853544 5.1892418060771632 61 32 9 2.1590358337313602 24 38 23 28 22 56 18 62
445 2.9594928135151921 -0.17501975765616623 5.3364108748213175 132 87 63 1.2490053318108587 22 60 15 54 19 19 21 28 16 30
446 5.5455530747469677 -0.79644459759782937 7.0692824066496991 193 181 168 0.59761995238292487 24 51 18 64 23 53 5 51
447 3.2789372969296382 -0.32543645877849031 5.0943931032880174 73 35 15 1.3708534092452453 24 52 18 65 23 54 22 58 15 56 21 70
448 3.041297491374559 -1.7931618962307501 5.4372780456555532 65 37 17 0.94421502302621119 24 62 18 68 23 52 22 72 19 75 15 82 21 74 16 71
449 3.1375779430524142 -1.3963255121717719 5.6543445508706913 57 10 0 0.67614388359634459 24 61 18 70 23 65
450 2.6278649929022264 -1.5164842502987224 6.404395334151558 151 129 106 0.48733206440019261 24 158 22 146 10 496
451 2.6264850216497306 -1.5202861947215289 6.4131907514429249 151 129 106 0.3320386778148019 24 131 22 126
452 4.0845705480251526 0.74497460675056915 5.7491144730035071 130 87 67 1.1758061029905593 24 41 18 76 23 49 22 49 12 39 5 50
454 3.5251972323769643 -0.093807014821268242 5.1800785634927333 142 100 78 1.2868151264474337 19 58 24 74 18 79 23 86 22 66 15 81 21 68 12 65 5 67 16 60
455 3.2369758786724194 1.8779536930698337 6.0125187911754843 101 56 33 1.1181767470606632 24 71 18 80 22 80 15 96 21 80
456 5.0004019604041661 -0.16574119900604889 5.864136624732625 115 76 55 1.5096498995614618 24 79 18 82 22 122 15 227 5 56
457 3.6839088761870862 -0.5218916823217048 5.1482157376232189 129 87 54 0.51420811135517697 24 85 18 85 23 93 22 129 15 138 12 78 5 110
458 2.9268894297048726 -0.61509773353737396 5.3420326134879206 112 80 61 1.2713324496616556 19 113 24 86 18 86 23 94 22 137 15 117 21 121 5 111
459 2.5437262638506168 -0.75877990427401643 5.4706520356871122 79 33 7 0.80983508688020156 24 87 18 88 22 103 15 116
460 4.0953587837332863 -0.78701670622633113 5.2219732863532338 115 79 57 1.3662294570373774 24 88 18 89 23 71 12 49 5 65
461 5.0040897631319883 -1.590634509780779 7.188694736417661 198 189 171 1.2752410906152638 24 91 18 91 23 97 22 139 21 168
462 2.9610463581849933 0.046308018772587944 5.5622903285288654 43 4 0 1.1301243016179803 24 76 19 59 15 92 21 91 5 106
463 5.6670556139685262 2.5840927669854596 7.9518146091923674 163 147 122 1.8021837445478124 24 112 18 100 23 104
464 3.4612331315113147 2.467045004138698 6.3894511676765271 132 91 71 1.858069921713968 19 206 24 111 18 101 23 122 22 95 15 123 21 135 12 82 5 98
465 3.3237368410351191 3.9800900259535257 6.2044518567483387 212 203 192 0.34485939939626742 24 106 18 104
466 2.9268894297048726 -0.61509773353737396 5.3420326134879206 112 80 61 1.2713324496616556 24 97 18 109 23 109 22 130 15 106 19 96 21 108 5 117
467 2.5435706041144277 -0.756837434658443 5.4710740882744835 79 33 7 1.1975054442548445 24 96 18 110 22 102 15 107 21 110
469 4.1796118062257666 -1.109131536019577 5.4984432842345248 101 76 61 1.9662353624659747 24 90 18 114 23 96
470 3.6779744220864004 -1.1610953787325489 5.5294677467607869 94 65 42 1.5060003441981806 24 132 18 115 23 139 22 166 12 87 5 115
471 3.6173965292228232 -0.67890792562834257 5.1412662422744715 74 37 14 1.8923549739206194 24 143 18 116 23 158 22 159 15 147 21 166 12 77 5 82 16 156 8 197 17 195
472 3.1399218622453695 1.4626646253162583 5.8696723932754864 68 16 0 0.23292434120378674 18 120 5 141
473 3.6952906093470155 -0.13971945354340592 5.1112117921653368 128 81 52 0.90434071994891796 19 185 24 102 18 122 23 112 22 140 15 163 21 215
474 4.8536638183868801 -0.080329903476629494 5.6406216027493041 68 24 4 0.86074829810181974 24 149 18 124 23 85
475 4.422234951185434 -0.78484458433877502 5.343826605785468 86 45 22 1.2961230667752142 19 224 18 126 15 193 5 162
476 5.1596092875240123 2.1052207512954868 7.3949848580190762 108 61 28 1.1875512585772243 24 153 18 128 23 167 12 99 5 124 16 175
478 6.4544008311893295 2.6186768099204052 8.6519176063120078 203 191 175 0.79894767809419986 19 114 24 154 18 130 23 168 22 116 15 151 21 176 12 103 5 126
479 2.903048068959885 -1.6034585001963755 5.5529189959361158 53 17 3 0.44105437124989016 24 128 18 133 23 162 5 133
480 3.5931271072943423 -2.5928501569733284 5.4260671370446847 104 65 42 1.0749425694063799 24 124 18 134 12 124 5 81
481 4.0557855770464135 0.15333947623149333 5.375572774588834 60 15 4 0.90020499519707919 19 186 24 150 18 135 22 112 15 213 21 224 16 152 8 190
482 2.7849270405360018 -0.50268856759219527 5.2786985418443555 71 38 19 1.8667245079548271 24 176 18 136 22 155 15 188 19 155 21 161 16 120 8 101 10 127 3 86 4 90 7 84 1 93
483 4.2590434051457366 -0.13981807334743046 5.3295674936672954 145 106 92 0.42773915158266712 24 164 18 137 23 205
484 4.260617610358878 -0.14029137548556109 5.3420026904131364 145 106 92 0.60372450242357423 24 220 18 138 23 209 12 92 5 200 8 122
485 6.45554203744397 2.6208212046699622 8.6565735847266101 203 191 175 0.84468992726513992 19 121 24 134 18 140 23 145 22 134 15 133 21 213 12 120 5 139 16 174 8 179
486 3.6959925562527562 -0.13678042604128049 5.0932489309206019 128 81 52 0.60163497815502742 24 80 18 143 23 89 22 132
487 3.0272919099951237 -1.2102157496869053 5.6814304459664369 48 17 0 0.45607698488164533 24 170 18 146 23 193 5 172
488 3.374081403254344 -3.0518089996371525 5.7643888086083832 202 191 170 0.88047374646215593 24 202 17 139
489 3.578063114770976 -2.645751943741621 5.5325953208257763 104 65 42 1.7840398646574236 24 123 18 148 22 213 21 195 12 109 5 101
490 3.2131502030866201 -2.0326386894395045 5.5070834184996338 71 30 13 1.4344736883513984 24 122 18 150 22 144 15 137 19 146 5 136 16 130
491 3.4994475165028112 -1.623795391509453 5.2843360895390186 76 46 30 1.4489276839526861 24 118 18 151 23 165 12 66 5 135
492 2.9045658690191445 -1.6003399987971023 5.546584630361024 53 17 3 0.56005102584791089 24 117 18 152 23 138 22 145 15 136 5 146
493 3.0365813583295678 -1.1959553875944529 5.6191517726016329 48 17 0 0.96880512635042082 24 209 18 158 22 174 15 190 21 220
494 3.3489442998278358 1.7150221955405223 6.0940729361715249 99 59 31 0.91386882222253352 24 193 18 159 23 164 5 122
495 4.53185587370377 -0.14845218453534959 5.5227895286794739 110 62 40 0.85035429549633523 24 160 18 163 23 154 12 93 5 158
496 4.7189324630797733 -0.87809004105115962 5.3977176059255942 106 62 44 1.056212394334229 24 180 18 164 12 165 5 177
497 4.5304595647978427 -0.14890720101003524 5.5112395435520485 110 62 40 0.94650760441056769 24 161 18 165 23 143
498 2.8245866489033302 2.4856660067378935 6.3000985842837176 95 55 15 1.2991580926796371 24 136 23 80 5 78
499 4.298857923231683 -0.74729009712302275 5.2418352199553437 109 71 45 1.5544980825806456 19 225 18 170 23 178 15 265 21 238 5 170 16 235
500 3.5839066503120574 -1.3201771249372796 5.6237654421135392 100 68 49 0.45598195541568742 19 211 18 172 23 191 15 222 5 173 16 192
501 3.3037291298644789 -2.8240410095065012 5.7807733729191977 109 81 61 1.0241064816277838 24 232 18 174
502 3.4353587662228833 -2.5095772937837539 5.4884542127161753 66 36 16 1.3560223667886093 24 219 18 175 23 233 22 179 15 178 21 275 19 244 5 212 16 224 8 212 17 224
503 3.9695405906326027 -2.2007764917127459 5.6092032995537986 63 39 22 1.3888862701784344 19 142 24 228 18 178 22 226 21 143 12 149
504 3.7303475934877399 -1.7986026303318303 5.346661950569163 86 58 42 1.6127985998139995 24 119 18 181 23 185 21 267 12 129 5 208 16 397 8 441 13 996
505 2.6607371985613772 -1.6317260915207414 6.0838623689549971 69 35 14 1.4206630406997542 24 212 18 182 22 221 15 135 21 114
506 3.0711378453212825 -1.4104846801766731 5.6963300418108851 56 9 6 0.77762338998337055 24 129 18 184 22 215 15 177 21 199
507 4.4024506962767775 -0.66256372501728 5.3982263914383353 118 77 54 1.2415368142280407 24 166 18 185 23 201 22 259 12 117 5 143
508 3.0722301022724636 -1.4054520833369704 5.6822956025100115 56 9 6 0.80496273048390921 24 156 18 193 23 190
509 3.0722301022724636 -1.4054520833369704 5.6822956025100115 56 9 6 0.80496273048390921 24 130 18 194 23 197
510 4.3000857307889637 -0.74414023470617208 5.2470717690836475 109 71 45 0.58235733683189517 19 272 18 195 23 200 5 179
511 3.2909230815826076 -0.15465495249975542 4.9777235049261126 102 61 37 2.1444492997621976 24 173 18 200 23 171 22 168 15 217 21 223 12 189 5 203
512 5.1587319303329249 -0.25728433835507175 6.1489346284476829 85 48 24 0.8722320487380264 19 618 18 203 23 235 15 236 5 202
513 5.3074310171502708 1.362513201358045 7.1702298082931559 65 39 21 1.7237063007482369 24 191 18 204 23 208 22 231 15 291 21 315 12 205 5 185
514 3.5499595247383535 -0.69143186204191531 5.1169706059754896 76 41 16 1.3746013180142049 19 227 18 209
515 3.2407771094872277 -0.67137512119811449 4.9758596002830888 84 38 13 1.4161638956381302 24 271 18 210 23 287 22 185 15 238 21 247 12 219
516 4.2436132487962439 -0.6778561473587843 5.2088542958652946 80 39 23 1.015532807185634 24 178 18 211 23 157 22 186 15 166 12 136 5 161
517 4.4022683279563442 -0.66074701278432335 5.3853590222231027 118 77 54 1.2606579084186302 19 229 24 177 18 212 23 177 22 272 15 196 12 123 5 160 16 343
519 4.3875853840632102 -0.51041292782176395 5.3805467513380698 101 68 42 0.85549877207857516 19 234 24 165 18 215 23 202 22 225 15 233 21 250 5 180 16 201 8 347
520 2.9182717687849236 2.8146297906359776 6.9559960461156809 75 41 21 1.4339825165576858 24 139 18 216 23 230
522 3.309824903884671 2.1471285520393697 6.0822659446520611 81 38 12 1.2711541840903522 19 172 18 220 22 204 21 144 12 89 16 172 8 226 13 272 17 283 11 447
523 2.8245866489033302 2.4856660067378935 6.3000985842837176 95 55 15 1.2991580926796371 24 157 23 81 5 94
524 3.3875762894229027 2.728546192722475 6.7543990377646406 97 57 35 1.4966553820466828 24 335 18 222 23 339 15 204 21 218 19 262 5 329 16 249
525 2.8151855307090168 3.1310237101263234 7.6213277736960849 130 112 89 0.2790960687885663 24 336 18 223
526 4.2927726902280572 -0.036405074267344628 5.2055770732348643 73 30 8 1.6237574751402244 19 193 24 205 23 210 22 192 15 216 21 228 12 191 5 198 16 147
527 4.5263447749730927 -0.13977948395877021 5.410233270758332 110 62 40 1.2648751179371709 24 221 18 229 23 142 22 265
528 4.6911311639316802 -0.0013254745015846003 5.6490996726706886 72 29 7 1.0150917504853505 24 252 18 232 23 248 22 263 15 281 21 400 12 192 5 184
529 3.7876314078202977 -1.9996877885537285 5.4706683461513901 113 85 67 2.1194027305061973 19 372 18 233 22 357
531 4.8318165324701461 2.3219730539503352 7.4711491600756581 74 31 4 0.78919414143349276 18 238 22 305 23 333
532 2.4687788739046805 -0.87689710851562364 5.4341952886378602 108 75 54 1.3662659899370018 24 354 18 241 22 274 19 133 15 174 21 152
533 3.1445011282650368 0.96095064044107947 5.5875534033326044 98 52 27 1.0551892912914205 24 230 18 242 15 298 5 255 21 295
534 3.4376584667297534 0.9539243959965511 5.5255012573432012 70 22 0 1.053708022857637 24 317 18 245 23 317 22 324 15 341 21 391 12 272 5 290
535 5.2201014285204863 0.83140942668982976 6.9135033949163605 84 43 17 1.2532728491745107 24 316 18 246 23 218 22 321 15 246 21 245
536 5.3254673916296031 0.6461415951977838 6.958228675463757 77 40 15 0.55172695204590849 24 314 18 248 23 241 12 179 5 309
537 5.542385556606523 0.33043034155497208 7.689175661922607 209 198 187 1.3924428663581552 24 163 23 195 12 108 5 142 18 249
538 5.2016885011526206 0.323984347480329 6.9193169140210609 129 91 65 0.51855130074175071 24 304 18 250 23 214 22 432 15 480 21 1123 19 1041 12 213 5 188
539 4.4668522831194126 -0.011531318908875959 5.4461376698097199 106 61 38 1.5939622394115998 24 250 18 255 23 423 22 654 15 406 12 220 5 253
540 4.3534119049446556 -0.82878415016158202 5.3972665356832303 84 47 26 2.0451900005435166 24 418 18 256 23 284 15 371 19 1084 12 148 5 234
541 3.762963782638951 -0.063977029612621167 4.9859929424898803 95 47 20 0.43622805846069101 24 223 18 257
542 4.3476155879344525 -0.1230796617420285 5.2161138178052671 118 74 47 0.65614517606196732 24 247 18 258 22 264
543 2.9180387038460411 -0.19167419485074899 5.2354117136562648 125 84 58 1.3661190099434057 19 283 18 260 23 258 22 364 15 237 21 256 16 354 8 203 17 466
544 3.4074801293012582 -0.20605646259837396 5.0286811776968623 112 76 52 0.80237806538642775 24 225 18 261 23 259 22 266 15 234 19 291 21 254 5 204 8 195 13 214 17 249 11 190 10 190
545 2.6376350570534761 -0.2502984489402314 5.2067347171546086 75 44 21 0.63107391760207554 24 443 18 262 22 405 15 410 19 282 21 255
546 4.4037093295911545 -0.32316075743367717 5.3139827086501779 72 38 19 1.7780813726349005 24 234 18 264 23 260 22 407 21 667 12 187 16 616
547 2.3763972362320898 -0.7524461863585612 5.6895935993736186 110 81 61 1.1074885904206575 24 462 18 267 22 271 19 153 15 197 21 174
548 3.3498574611397451 0.90462954822447217 5.5593408282071257 107 62 39 0.63788953592714293 24 421 18 270 23 393 22 323 15 336 21 392
550 3.5191685432544295 -2.4988425645986316 5.5022202027232279 88 59 40 0.81248087513390244 24 277 18 275 23 270 22 239 19 374 15 255 21 261 12 249 5 259 12 286 16 290
551 4.9005557370262514 -2.3282127394573431 6.8319373629204234 220 211 194 0.89595242278878751 24 272 18 281 23 275 22 378 12 255 5 265
552 3.1943509482401975 -0.88992093427163543 5.1734530134008541 86 56 33 1.6437734562078627 24 294 18 283 23 312
553 3.9727819032157168 -1.5201921401191349 5.6961926965010088 70 26 0 1.2723062183450844 19 668 18 284 15 708 21 712 5 274 16 1119 8 1096
554 3.4789637802493143 -1.3705096619988779 5.5514081120224512 49 7 0 1.9698640310437852 24 210 18 286 15 254 21 281 16 190 8 165 22 223 17 148 11 187 10 209
555 2.7553608833473717 -1.4939288049900927 6.1800915299672639 65 33 17 1.6609879092178061 24 410 18 287 23 430 22 250 5 594
556 2.698126035204869 -1.3792462166732977 6.204724972169795 73 51 31 0.96271941517426318 24 264 18 290 22 369 15 374 21 274
557 5.3772920504631392 -1.3906500341466692 7.1391024415360116 222 213 199 0.059716006832104755 24 404 23 267
558 3.7106954211298726 -0.96355074061771484 5.3091535052976582 122 97 75 0.86093153400659206 24 262 18 294 23 280 22 278 15 373 21 376 12 261 5 230 8 692 17 527
559 4.1391567276538526 -0.88149408433478826 5.0775097247387242 68 33 9 1.0629816181298151 24 260 18 295 23 282 22 277 15 262 21 241 19 354 5 233
560 5.4127489567990761 1.4492864277246533 7.2684401869957735 110 63 30 1.2680671533486243 24 338 18 299 23 325 15 352 21 388 12 301 8 492
561 4.3802005386540026 2.3024214553539841 6.5995133544251088 102 61 39 0.52010144083351728 24 311 18 303 21 505 12 144
562 3.8792403713704866 1.1939908602107039 5.481278851927744 112 71 56 1.3650224935477557 24 309 18 305 23 294 12 270 5 333
563 5.2226614035886003 0.83272264522431105 6.9155004810481282 84 43 17 0.69288633636421881 24 307 18 306 22 345
564 5.323208088747629 0.64583582812362572 6.9446493334195534 77 40 15 0.5374641387989324 24 305 18 307 23 299 12 169
565 5.3265765099135836 0.64664901162370803 6.9657081033351869 77 40 15 0.59281853349099567 24 306 18 309 23 298
566 5.5455581889969157 0.32488388068878205 7.7190622065613708 209 198 187 1.7592037007576791 24 187 18 310 23 215 22 295 15 1146 21 1916 12 105 5 153
567 5.2003807661387453 0.32425734768355696 6.9097662525395513 129 91 65 0.55394333626257919 24 326 18 311 23 207 22 559 15 563 19 1022 21 902 12 215 5 183 16 1946
569 3.7537323216633984 -1.4104551561504897 5.5526962127540047 92 52 28 1.2953805690690305 24 291 18 320 23 196 15 349 12 162 5 276
570 4.1391504883793475 -0.88541619174115471 5.1205520753411946 68 33 9 1.175402044716495 24 293 18 322 23 313 12 363 5 299
571 4.353948194509349 -0.83103494003880662 5.4006061503181542 84 47 26 2.0330961494068958 19 1081 24 389 18 324 23 311 15 351 12 167
572 4.0079778287568431 -0.59137654381208193 5.2857312491007606 108 74 61 0.83819997321552364 24 297 18 325 5 241 12 214
573 3.8792403713704866 1.1939908602107039 5.481278851927744 112 71 56 1.3650224935477557 24 321 18 328 23 323 5 383 12 302
575 3.547428163849208 1.3385253454339054 5.6719612747896084 71 23 0 1.2874143380279957 24 322 18 330 23 327 22 230 5 314
576 5.1025346803926688 1.9304888557493274 7.2610490824294596 98 53 27 2.1992728969151316 24 561 18 335 23 330
577 6.3763568346340289 2.3466564860368107 8.5165651068989412 203 193 180 0.73351352109807466 19 318 24 348 18 337 23 460 22 227 15 296 12 399 5 445 16 271
578 6.3424275622642181 2.4757058197844932 8.6651698988474699 160 143 123 0.99931147053644565 19 297 24 312 18 338 22 300 15 287 12 305 5 317 16 273 8 224
579 5.1357040632740745 2.3860785502244464 7.4980498570547951 99 54 23 1.3800555882839949 24 330 18 341 23 467 22 338 15 301 21 293 12 338 5 573
580 6.6444217003622388 2.6834050678250843 8.6080739984476242 203 192 174 1.5335416745723423 19 299 18 342 23 335 21 311 16 275 13 233 11 231
581 4.3795420373397205 2.3002913096529563 6.5976641930445776 102 61 39 0.84742260863690366 24 331 18 345 23 229 22 306 15 317 21 532 12 211 5 323
582 2.9186498863146895 -0.19197114957264472 5.2367128044105513 125 84 58 1.3532653122637326 19 258 18 346 23 305 15 282 21 297 16 326 8 243 17 417
583 4.1343660719612192 3.8618057251051461 5.6495575125356385 171 154 125 2.2714689909945247 18 353 23 340 15 552 21 359
584 3.8946925182881769 -2.2690044530341411 5.6412036645516741 61 38 23 0.22887765521292275 24 431 18 355
585 4.1087464274713934 -1.4824481073310813 5.9389403241972563 50 12 0 0.9343789881230703 24 266 18 356 23 279 22 373 12 260 5 277
586 2.8147085640761453 -2.374134939683219 6.0612339237442603 80 58 38 1.5347334701214428 24 353 18 358 23 342 22 385 15 252 19 179 21 362 16 226 8 174 13 139 17 108
587 2.6663694775924522 -2.1055161152048467 6.1419911433079237 166 148 124 1.2657388869913679 24 826 18 360 23 512
589 4.0384186163697411 -1.4813199066130678 5.7798176682630729 89 49 26 0.86720103863563947 24 405 18 366 23 369 22 374 15 449 12 259 5 275
590 3.8678990031346174 -1.3914815027052674 5.6790485618952644 64 25 3 1.32048333147052 24 408 18 368 23 432 22 463 21 780 12 369 5 359
591 3.283040838442302 2.1975941881766907 5.9866969609139957 114 73 50 0.88859937466405692 24 346 18 377 23 336 22 313 5 324
592 7.0349787037432039 2.8624582953711863 9.2020283676147869 204 192 176 1.9969327587483019 19 476 18 378 21 324
593 6.3244700061016763 2.6715950736181564 8.804301393081218 102 81 53 0.44996474708141176 19 477 24 340 18 380 23 466 22 520 15 318 21 514 12 339 5 451 16 488
594 2.9479185619078745 1.9540176999754826 6.0105767623658188 122 84 65 0.52944111088340984 18 381 5 528
595 5.5934896972681676 2.3979488283001289 7.7888740280573847 142 126 95 1.0726700323728313 24 329 18 382 23 334
596 3.0236373142973054 1.8993329550760989 5.9466880844827221 114 69 49 1.8368800802617471 24 388 18 383 22 337 15 319 21 427 19 314 16 300 8 726 16 804 13 684 17 875 11 1859 13 3917 10 2106
597 3.6954276669751076 -1.4097543833085788 5.496423213263907 59 11 0 1.2808120348867587 24 386 18 386 23 382 22 794 15 429 5 458
598 2.8147085640761453 -2.374134939683219 6.0612339237442603 80 58 38 1.5347334701214428 24 395 18 388 23 315 22 360 15 285 19 170 21 382 16 257 8 159 13 145 17 99
599 3.0726128987280914 -1.0108614954072936 5.4420007449847621 74 51 35 0.84967752077015124 19 364 18 389 15 372 21 242
600 4.9099629195980992 -0.87999515460285371 5.7046250500890343 119 91 73 1.1415360524818188 24 295 18 396 23 199 22 457
601 3.1883816626981085 -0.70657005198450062 4.9934501150054658 101 62 42 0.85986709806927308 24 493 23 429
602 3.3744948618122832 -0.12151209567128718 5.0364949736721654 87 46 14 1.5573961586914984 19 519 18 398 15 539 8 419 17 468 11 465 10 993 14 716 20 1397 9 3358
603 4.7699783881738815 -0.97493771864903911 5.5048461668417747 61 35 14 0.85824236106834606 24 261 18 400 12 263 5 232
604 5.1669468023537339 1.0035111828783287 6.9696591837603545 73 27 1 0.98989244798690379 19 539 18 402 23 297 15 359 21 575 12 292 5 386
605 3.4686289741076211 1.4584695079778232 5.7838284109284226 66 22 0 1.1344136549124062 24 398 18 404 23 535 22 350 15 362 21 368 5 390
606 3.7333613117727644 -0.14581199115714383 5.2055955074046825 130 85 59 0.67264190752347608 24 301 18 406 23 255 12 233 5 250 16 195
608 3.7363787745451083 -0.14371687186985671 5.1721545327063438 130 85 59 1.4028143087241334 24 246 18 409 23 304 12 278 5 280 16 196 8 261 13 253
609 2.8125149098729612 -2.1860506463838205 6.0575362543039937 76 53 37 0.70054536296586112 24 518 18 411 23 505 22 380 15 386 21 263 5 757
611 5.1533435497925488 -0.015376307568181619 6.3905245940830984 72 34 14 0.8721321921453693 24 254 18 417 23 247 12 268 5 267
612 4.1438128310451283 -0.033448223175573305 5.19489767982878 87 41 24 1.0952284997601089 19 518 18 422 23 421 15 408 21 402 8 527 13 775
613 3.6136629335135009 -0.025331729562486027 5.0810078027891405 95 46 15 1.0779609973103064 24 447 18 423 23 410 22 570 19 516 15 407 21 401 12 231 5 251 16 520
614 4.2275652935874986 -0.053771520863883315 5.2314920219512873 86 44 23 1.4837553146017013 19 552 24 446 18 424 23 390 22 602 15 578 12 232 5 431 16 592 17 838 13 1496
615 2.7089909651020738 -0.95302362105907723 5.3532189239559429 112 73 52 0.6187744345529923 24 414 18 425 23 433
616 2.7172409192583835 -0.86893070408529138 5.3170903147132877 80 37 13 2.0789460863824005 19 386 18 427 22 275 16 512 8 255 11 338 13 315 10 521
617 4.9074579479374254 -0.87334963985577185 5.6826468754359087 119 91 73 1.1997611557771488 24 283 18 429 23 179 22 489 15 602 21 984
618 4.8357936701311299 -0.84277859849585823 5.5635516579007289 70 29 7 1.3127200350730883 24 399 18 432 23 285 22 417 19 813 15 441 21 692
619 4.0388953365605138 -0.69286726961715761 5.1635812907496224 136 105 89 1.4307087895897237 24 463 18 434 23 441 22 421 15 369 19 394 21 346 12 218 5 366
620 4.3144751953287095 -0.20066846676635897 5.2820312983270634 74 36 13 1.8722004356388919 24 245 18 437 23 257 22 401 15 235 12 234 5 249 16 158 19 201
621 4.5086138751054223 -0.41060888084892816 5.4261763723704552 101 68 46 1.0409878149849237 24 623 18 441 23 415 22 449 15 411 21 569 12 393 5 428
622 3.8179107307629874 -0.47653909212566709 5.1619809368391367 121 82 55 0.83384414233298731 24 628 18 442 23 412 15 551 12 556 16 501 8 349 11 1244
623 4.1364642689971935 -0.50952408213491895 5.268510949631243 84 50 30 0.87931612838682682 24 237 18 443 23 277 22 424 15 556 12 239 5 244
624 3.9620348234541245 -0.50364129428319493 5.2030005792323264 64 34 25 1.2892703206418934 24 238 18 444 23 289 22 416 15 554 19 570 12 171 5 243 16 580
625 3.471963882653637 1.39583818173151 5.7155922218446653 137 97 58 1.0550513772822532 24 576 18 446 23 453 22 331 21 421 12 425 5 434
626 3.8327320040510644 0.078489651390579146 5.2992292914222503 108 60 38 1.5505366568088865 19 383 18 447 23 244 15 401 21 258 12 225 5 399 22 384 17 354 10 459 11 412
628 4.009977299074194 1.0002969183176451 5.5664685440156205 109 64 53 0.68227353677761071 24 371 18 451 23 472 12 297 5 413
629 4.5313556347411099 1.423557624509395 6.1791616714695632 112 68 42 1.2879201444111794 24 637 18 455 23 328 22 328 15 852 12 206 5 443
630 4.039541185102939 0.86490760907303543 5.5220248958615734 141 99 86 0.83565043802599703 24 458 18 456 23 263 22 322
631 4.8650490932827619 2.2275141062152159 7.2759955546547408 67 24 0 0.72412772476314391 19 2748 23 464 22 1022 15 1830
632 3.0945706654460059 1.8396191173410095 5.8805315058160224 137 91 70 0.39866833447952826 24 374 18 464 22 336 15 343 21 512 19 471 12 221 5 532
633 4.3291373795261281 0.22629696743535152 5.6240817937457326 100 59 41 1.3961166924817012 24 945 23 895 22 561 15 818 19 545 21 589 12 652 5 677
634 4.3941512230786213 0.24715067092329118 5.6043226191195652 99 54 35 1.2050284248327006 24 452 18 466 23 425 22 560 15 565 21 586 19 771 12 416 5 405 16 756
636 2.7377025562322492 -0.74284059651051049 5.3309610092839286 108 65 39 1.2891008104483284 24 595 18 473 22 496 15 419
637 4.2720646847100996 -0.80513343268412174 5.1750754272382871 78 41 17 0.78074817983395106 24 476 18 478 22 786 21 801 12 360
638 3.6435620383594776 -1.609880004187902 5.2994722502681606 52 19 1 1.0230960647256013 24 467 18 480 23 475 15 772 12 434 5 473
639 4.0658853981223935 -2.0248859029442738 5.7225009931881425 113 77 55 2.0479998810841926 24 385 18 484 15 1220 22 1228 17 1096 13 966 11 1161 10 1658 14 3889
640 4.1887124029103981 -1.5496426734602129 6.0615633612188953 81 47 26 1.7351688655750959 24 406 18 485 22 953 15 710 21 960 16 2195
641 3.342334740159008 -0.68588365479693447 4.9440019879611592 165 132 114 1.556314514766634 24 659 18 488 23 605 22 497 15 353 19 337 21 363 12 400 5 235
642 4.2702278687871047 -0.80392027080932493 5.1642837526322012 78 41 17 0.92648641684231181 24 502 18 495 23 435 22 613 21 802 12 404 5 420
643 3.487776311296428 -1.3204629273141204 5.6266637418627479 101 69 50 0.66749413127036072 24 666 18 505 23 785 19 659 22 669 15 585 21 630 12 451 5 591 16 614 8 652 13 632 17 675 11 601 14 626
644 2.9894829283731426 -1.4077731015331083 5.704884732438857 88 53 39 0.97377845063430313 24 489 18 508 22 1141 15 609 21 464 19 421 5 1440 23 1346 8 445 16 669 13 573 11 1080 10 591 14 970
645 4.227397210637327 -1.5353408800484662 6.2327045171124107 57 21 0 1.1136236329326814 24 409 18 509 23 431 22 468 15 446 19 835 21 690 12 383 5 360 16 1073
646 4.2517245184295973 -1.843011022620167 5.7885426310117092 98 62 43 1.3769846806926929 19 906 18 517 12 341 5 491
647 4.2524833357213803 -1.9533953326457831 5.8199409900602461 87 62 46 1.5021816750859744 24 581 18 520 22 739 19 910 21 704 15 726 16 1203
648 4.065293389040999 -2.0208051752060889 5.6927987047896158 113 77 55 1.0430066496296952 24 426 18 522 22 1138 15 1134 5 349
651 3.1761091623756306 -2.2613058588429449 5.5435250989894929 115 93 77 0.98385540327938226 24 769 18 526 23 1532 12 1420 5 1311
652 5.0746337284115661 0.3409691064344379 6.8711254061427107 112 72 48 1.1824702530038063 24 453 18 533 23 379
653 3.4148591222894398 1.4523945960816211 5.832637829701472 82 40 7 1.1327410795677502 19 752 18 537 23 923 22 441 15 485 21 493 16 493 8 566 17 898
654 5.0432756365386515 1.985841461992792 7.3132191691108162 43 4 0 0.28777220756354505 19 482 18 538 22 800 21 515
655 4.6942819973919603 -0.11795430112960997 5.5971611807233446 113 69 50 0.73941152837575752 24 852 18 541 23 689 22 893 12 585
656 4.02916041359713 -1.5401223680260798 5.7097794315112029 77 32 3 1.0429513993367419 24 549 18 548 23 525 22 958 15 707 21 468 12 448 5 471
657 2.898896944229385 2.0620517121181932 5.8959260190955334 66 27 2 0.4367107356261708 24 554 18 552 23 579
658 3.3508922379807808 2.0956475759744002 6.1013042891682687 101 63 36 1.3350574917979585 24 342 18 554 23 468 22 312 15 568 21 840 12 334 5 452 16 807
659 5.0051583041678853 2.2657182542765981 7.6312240209095608 137 118 105 1.4434205809305443 19 5610 24 994 18 557 23 582 21 1684 12 979 5 529
660 5.0455932208027265 1.9865324510455511 7.3270586091117442 43 4 0 1.1571525572526877 24 672 18 562 23 584 22 856 21 496 12 548 5 890
661 3.0504818844930464 1.6695898872829891 5.8982515304968111 133 90 70 0.63556245654023968 24 358 18 563 23 396
662 3.0620867402401535 1.5517863041552591 5.7840322522799275 133 90 68 0.70661133132949594 24 564 18 566 23 588 22 525 15 493 21 517 12 551 16 795
663 3.383955708827143 1.4044172211277091 5.7485032819456583 103 60 33 1.686367007135589 24 574 18 570 23 544 22 580 15 507 21 1061 5 537
664 3.3182630992096449 1.3966293343119529 5.6660320265829274 95 49 25 2.0271521500859682 24 930 18 571 22 829 12 503 5 436
666 3.7797142673137811 1.2800806849964972 5.5786071845627845 63 14 0 1.1420658584982699 19 322 24 364 23 452 22 327 21 385 16 375
667 4.2374616510614205 1.1243446426650934 5.6547644972825779 116 67 42 0.96462268345088731 24 644 18 578 23 549 5 457
669 3.3198022333171959 -0.66005183089583253 4.9912599933471729 86 40 18 1.5230786162667693 19 549 18 589 23 602 22 623 15 873 21 1833 16 1764
670 2.9649463132884968 2.1119181477612647 5.8525838289212544 131 94 71 0.68712424252129967 24 608 18 599 23 818 12 1007
671 4.6942819973919603 -0.11795430112960997 5.5971611807233446 113 69 50 0.73941152837575752 24 721 18 602 23 853 22 1118 12 485
672 1.9054921274006129 -0.39521345368787147 6.6649990725166806 105 66 49 0.31717045446918701 24 620 21 5318
673 4.2405209938031128 -0.20686341638224098 5.3069232932289356 82 41 21 1.3004754745465483 24 618 18 609 22 676 19 617 15 542 12 593 5 613 16 619
674 3.2791864732980844 -0.22007845688204175 5.077413479263253 75 34 13 2.0705744405329711 24 619 18 610 23 698 5 621
676 3.1237251679837748 -0.40088166016588161 5.1899625729150927 103 67 44 1.8587287363320339 24 610 18 613 23 590 22 660 21 566 5 616 16 531 8 553 11 750 10 980 9 1422 3 1536 2 1397 4 1632 6 1830 7 1649 1 1332
677 2.7157697343996858 -0.56837587280326618 5.3270137617052109 129 94 66 1.5169158934401006 24 631 18 621 23 706 15 557 19 653 21 572 8 544 9 504 2 757 4 1394 1 1337
678 2.7877319564624292 -0.63824974471278129 5.3057769821486573 107 66 42 0.72548626119963044 19 535 24 632 18 624 22 456 15 558 21 573 16 280 8 375 13 268 11 357 10 373
679 3.7805011457294126 1.2557917120652038 5.7482138079506804 107 63 45 1.7591330508196708 24 638 18 628 23 451 21 386 19 558 5 540
680 3.8236373337755039 1.1662396691687615 5.5236880517060829 77 35 16 1.101351515455995 24 369 18 629 23 322 22 823 12 411
681 4.0259299967314357 0.72958237324413266 5.4457063808471604 131 89 71 0.82440852202724135 24 653 18 632 22 394
682 5.5281803823278866 0.73487553180178966 7.0556537515031295 81 35 5 0.91596220168442544 24 956 18 633 23 869 19 1527 15 807 21 911 12 645 5 853 16 2654
683 5.0746337284115661 0.3409691064344379 6.8711254061427107 112 72 48 1.1824702530038063 24 391 18 637 23 392
684 4.9503172999953735 0.29689691726753081 6.4415885707956075 115 73 46 0.76374921103386495 24 949 18 639 23 981 22 921 19 1545 15 887 21 919 12 650 5 921
685 4.2182937359087838 0.22140406416715711 5.50705614748908 119 78 70 1.0697822265203556 24 944 18 641 23 894 22 838 15 566 19 544 21 590 12 526 5 599 16 544
686 4.1896664099279697 0.17302990975338017 5.6035585125592853 55 11 0 0.83201613012803999 24 662 18 642 23 424 12 223 5 403
687 5.099370931279279 0.097864468179933245 6.3113470882991995 74 37 17 0.37295550411631895 24 663 18 643 23 563 22 834
688 4.8996781609093194 0.025683419099034155 5.819558426026493 102 63 43 0.82048537196068672 24 437 18 645 22 567
689 4.6075781589996954 0.00039674892872099132 5.6004908172743271 116 72 54 1.1714169920087738 24 730 18 647 23 618 22 655 15 627 12 389 5 604
690 3.6593599242187205 2.6453135059703188 6.752168578043757 95 51 24 2.0746027541667229 24 606 18 654 23 576 22 1056 15 848 21 1351
691 3.566400397174232 -2.2199198299693443 5.5275493927246364 72 48 28 0.96330285346609834 19 871 18 655 15 717 21 1200 15 1348 5 714
692 5.043349251499432 -2.8256156706951896 6.5909441757082305 167 149 127 1.2005989312857674 24 349 18 658 23 343 12 1085
693 4.0985290840514388 -1.7203355932793485 5.6701577075651795 107 63 40 0.81035517823052639 24 509 18 659 15 1184
694 3.7176496734527156 -2.8661260062109317 5.6738012925894408 91 61 40 1.8072132739080029 19 887 18 662 22 1464 21 1453 12 468 8 2932 10 2265 14 3382
695 4.0756677129296968 -0.88892133577601062 5.0477682059494287 91 62 41 1.1315402236366723 24 711 18 664 23 682 22 1125 15 623 19 592 21 991 12 576 16 587 8 1282 17 1018 11 1487
696 3.6723950018956639 -0.75614627242228383 5.1595140136557989 82 49 24 1.7391833628978288 19 1850 24 469 18 674 23 437 15 587 21 660 12 401 16 879 22 2028 8 2844 13 2574
698 5.2793405282789534 -1.4515843509486173 7.261192589019779 217 205 192 1.4835586516322945 24 708 18 687 23 684
700 4.1788205892321519 -0.897414998560782 5.0972358336623929 116 84 63 0.96064903200385865 24 466 18 692 23 681 12 573 5 581
701 5.7427571439943321 -1.288724441851467 6.4262094617573924 216 204 189 0.40985565264787693 18 694 13 4038
702 4.8446712760933979 -1.5330554847984126 7.1075875736423146 147 137 122 2.0078609167474744 24 703 18 698 22 1354 12 592
703 3.0315880066977998 -0.90598424060361205 5.3924358024332619 86 59 40 1.6123224458675325 24 677 18 701 22 1317 15 773
704 3.4116542833934709 -0.054887502124029014 5.0275349882683331 84 39 6 0.96975689105313378 19 994 18 710 23 1201 24 2007 22 1884 15 1813 21 1842 16 1653
705 5.2907793315980021 -0.22238012052888351 6.3377198453473547 102 66 44 0.66198420847085304 24 718 18 714 22 899 21 1870 12 670
707 4.5743028015753104 -0.0012619108994942341 5.8097791015364821 85 39 16 2.0697961236571687 24 710 18 716 5 1204
708 3.7410693681424876 0.030600625558281247 5.2046240599313789 118 69 42 1.6337441928326761 24 612 18 717 22 657 15 638 21 877 12 938 23 1899 16 598
709 3.6829460118758197 0.053923393415664642 5.1499733412814486 78 27 1 1.6991577681589114 19 985 18 719 23 704 21 876 16 601
710 5.1364797648950722 0.048861282170504769 6.3394257554870892 101 65 47 0.98560301808925521 24 1183 18 723 23 887 22 931 21 874 19 1912 12 656 5 664
712 3.1077778395111793 -0.49883992778664316 5.209233972811659 74 31 6 1.6637114791859859 24 483 18 728 22 665 15 1328 21 662 16 498 8 546 13 484 17 476 11 424 14 583
713 1.8905655713781346 -0.56405326084908158 6.6166131463801863 92 62 47 0.99039857251336005 19 1991 18 731 15 1341
714 4.3558612069071057 -0.27995675389104635 5.2357794874550549 96 62 43 1.0717877095878154 24 744 18 736 23 855 15 966 22 671 21 897 5 466
715 3.188847042165742 -2.7299027805066718 5.8361516658058195 108 80 59 1.0035166431987979 24 1342 18 744 21 678
716 1.9160737992160231 -3.8482416875475161 7.5918195034073301 242 236 224 1.6559833668854209 24 763 18 746 23 521
719 5.040671869074691 -2.9180174092027755 6.6242741767399158 168 150 128 1.3527508589391641 19 1249 18 765 23 730 15 1099 16 856
721 4.237081474883885 -0.47196387213878638 5.2026252646768691 94 54 35 1.7255278117417203 24 1010 18 770 23 593 22 595
722 5.2909083765874012 1.0043308242237474 6.9935156114229473 120 83 60 1.6520543632385905 19 1061 18 773 23 876 21 806 5 988
724 6.0259839743184358 -3.2622298962312568 5.9556238874613339 183 170 151 1.6109625647648402 24 1379 18 780 19 1333 15 2124 21 1257 8 614 11 893 13 1002 14 520 20 901 2 996 7 1305 1 764
725 4.0334974944680235 0.13539368817915762 -0.41144523950985395 240 231 217 1.1672900340733137 24 525 18 781
726 3.9275196572484941 -1.5864584839297129 5.5771435942774819 74 31 6 1.1008510028253966 24 799 18 786 23 1308 22 1519 15 1177 21 1331 16 2273
727 2.9201267087608258 -1.5197251487992958 5.3161255925334281 53 17 0 0.39093181617641953 24 1077 18 787
728 3.3089411201320607 -1.5625821162569133 5.4668864342799717 115 80 58 0.81999464367438002 24 798 18 788 15 702 12 727
729 4.1220682521641727 -1.6031222805201704 5.7358836238086477 68 24 3 0.41250905712737523 24 802 18 790 23 514 12 460
730 4.9236623175535383 -1.7058114638275141 7.1621347190005284 208 200 183 1.3715088230594872 19 1155 18 797 15 617 22 724 21 632 12 712 16 2869 8 1310
731 3.0160068690861435 -1.3497033849869338 5.7664545814052159 51 14 0 0.3256728652404271 24 1294 18 799 5 1288
732 3.6679601402388649 -1.2860820052107975 5.585089166126723 81 47 23 1.0032190825846319 19 830 24 696 18 801 21 778 12 450 17 984 11 876 10 1180
734 3.2362772693342059 -2.1993181634290369 5.4095376294335447 61 30 9 1.1624776299489783 24 771 18 806 22 693 21 726 15 433
735 3.1211723655518 -2.2660114073468214 5.6090241588779595 113 93 76 1.1075248551978516 24 772 18 808 12 1418
736 3.6716431219973176 -2.0957219509044025 5.5130377741418153 74 41 23 0.75779492652684266 19 867 18 810 23 634 24 816 22 1197 15 1231 16 703
737 2.9771060315651097 -2.0914403828075958 5.7766000490755625 106 82 68 0.9186105647849091 24 1367 18 812 22 1419 15 1223 19 682 16 685 8 600 13 538 17 615 11 343 10 607 14 505 20 381 9 289 3 352 2 350 4 576 6 557 1 780
738 3.0771568802935825 -1.9961523661759333 5.5892033792156628 113 88 69 1.3377995418642221 19 937 24 814 18 813 23 1556 22 1225 15 1110 21 2374 12 1120 5 805 16 1058
739 4.1358729280101443 -2.0522630219223799 5.9235184035398456 122 95 77 1.5598141809945956 19 1192 24 1361 23 1277 5 765
740 2.805991101350827 -1.787788044488521 5.663076598718936 113 91 70 1.351795318326698 24 831 18 820 23 1384 5 1043
741 2.4855528401294293 -1.8445881445710397 6.1985490566754535 88 58 38 1.2108088555013121 24 2897 18 822 23 1314 21 1481 5 738
742 2.8655773927287482 -1.6298052294627632 5.5184992447012791 58 23 0 1.2862362435414061 24 1345 18 823 23 1677 22 1136 15 771 21 429 5 739
743 3.2544553301139212 2.1240728853847552 5.9921040624645538 93 52 24 0.87596661220561656 24 609 18 826 12 540
744 3.3821706178095541 1.577147792409572 5.9626588500635584 67 24 0 0.64999393161719132 24 535 18 829 23 532 22 427 12 552 5 509
745 3.4539120515963493 2.8199348845873038 7.3139542546459149 91 51 29 1.1266267722708421 15 1083 13 4558
746 4.609576917497372 1.1387252572222062 6.1424666696784085 129 87 62 0.91751468759140709 24 923 18 836 22 1165 12 509
747 5.4641996756752809 1.2275723397404896 7.1843774643306615 118 75 50 1.2417424711135348 24 647 18 837 23 550 22 596 15 525 21 809 12 510 5 552 16 774
748 5.4455321048830116 0.84940167824846169 7.1095006076147165 68 24 0 0.98573907419165363 24 1723 18 839 22 806 12 902 5 1219
749 2.0894586541281277 3.758178197999813 6.3934579721547626 208 200 186 0.70448914044404576 24 2856 18 849
751 3.4311948619629868 2.8274563695348109 6.7975963654365898 150 119 97 0.22540611886195616 24 894 18 860 5 1008
752 2.4841065770459956 -1.8440949268072171 6.1959665606735888 88 58 38 0.97633815557243542 24 2674 18 868 23 1388 21 1333 13 1900
753 2.805991101350827 -1.787788044488521 5.663076598718936 113 91 70 1.351795318326698 24 881 18 869 23 1322 5 975
754 3.6717455789651154 -2.1021165653404963 5.5231485135611091 74 41 23 0.70886770513942199 24 888 18 872 22 1251
755 3.6666292562340352 -2.190544356887913 5.5584690082020556 122 94 74 1.515320385344447 19 979 18 874 23 830 21 783 5 807 16 1386
756 2.9111841257713698 -3.7784745514221587 7.1364911964853137 216 203 184 1.2138835227233384 19 1110 18 879
757 3.5721438711213995 -0.14222304004113318 5.0697839926260064 150 113 88 0.79677361640932454 18 881 23 844 24 2388
758 4.3566255078856555 -0.28036967771556393 5.2457099701014167 96 62 43 1.1801930598388266 24 900 18 888 23 708 22 782 12 606 5 620
759 3.0824281035744177 -0.43717406055632485 5.2041581620108701 85 45 22 1.4519562857871093 24 903 18 889 22 1126 15 794 16 1083 19 1049 8 1432 13 787 17 866 11 872 10 1535 14 1174 9 1168 3 1660 20 3092 2 2503 4 3211 6 3289
760 3.1099358832631232 -0.4994154375034629 5.2215481524877418 74 31 6 1.1926517454853454 24 630 18 890 22 784 21 795 16 404 8 661
761 3.0668215390461739 -0.52370916883025265 5.2444578108855548 74 32 8 1.489741395556508 24 1235 18 891 23 1234 15 1159 19 1217
762 3.9412645900934953 -0.87849772071848165 5.1149840859795681 81 51 30 0.94378348430503112 24 1292 18 899 23 845 15 1194 21 990 12 719 5 1170 8 1024 13 1483 17 1027 10 1062 14 1067 20 1051 9 1482 3 1345
763 3.1621388620726538 -1.2035363889233643 5.6411016149924604 84 56 38 1.0697183068040963 24 913 18 901 23 839 22 791 12 1150 15 1122 5 522
765 3.0188189590110399 -1.3467494149134025 5.7583540198657612 51 14 0 1.1075665861449286 24 1053 18 903 22 946 15 1287 11 1090
766 3.7443763284273022 -1.3325836177072234 5.6408326309267638 108 75 50 0.44730166447128195 19 725 18 904 21 770
767 3.3537217534629198 1.3537748547932051 5.6336991663597074 63 9 0 1.1599818105775319 24 578 18 905 21 1063 12 813 5 845
770 4.1018409130281217 1.4200189600798927 5.6023385301664375 77 32 3 1.6445820325068587 24 932 18 920 23 924 22 1059 15 906
771 4.3136992515383215 1.5124679067358113 6.069705894501336 81 35 1 2.066446449906433 24 785 18 923 23 925 22 2681 15 3758 21 2551 16 3927 19 3789
772 3.8091236333192855 0.185389261769177 5.4509996774052425 61 12 0 0.6062337923284139 24 1175 18 929 23 888 16 868
773 3.7929267829923079 0.21039754264582516 5.5123342291037032 105 60 41 0.18840281689192986 24 1169 18 931 22 925
774 4.572000953128442 0.24206121852305229 5.8178524900500648 74 31 12 0.943414223872452 19 974 24 1165 18 932 15 820 21 828 12 525
775 4.8547658750722933 0.29999806978065718 6.2929511428658804 132 91 64 0.84864983365927438 24 948 18 935 23 559 15 1653 12 651 5 883
776 4.2016940516383334 1.5698195886707293 6.0778256729479949 86 40 6 0.9876508487690282 19 753 24 935 18 936 23 929 22 870
777 5.1182634844469028 0.36785037710931046 6.807390025088262 55 12 0 1.6147013779763379 24 951 18 937 22 844 15 815 19 1544 21 832 5 864
778 5.3110062621013236 0.45203370221147637 6.8914878887410538 108 69 46 0.90381011515622778 24 952 18 939 23 558 22 807 15 1648 21 916 12 520 5 861
779 5.4413180170039794 0.84776390755767483 7.0768486095039282 68 24 0 1.0040013712890326 24 2067 18 942 22 814 15 801 12 1062 5 1232
780 5.1059927876075752 0.99797429499647428 6.954634560355335 84 41 15 1.4178286508284821 24 919 18 943 23 875 21 1117 12 488
781 5.5226164816434116 1.2261493126195944 7.2237806382880736 84 38 4 0.77130022423272959 24 1190 18 944 23 881 22 1079 15 875 21 1079 12 819 5 840
783 3.2519337777395592 2.1249511095689209 5.9991048224330745 93 52 24 0.7393639421235928 24 527 18 947 23 815 22 1011 12 499 5 876
784 2.9207709392848162 2.6887994275450282 6.7983972848676393 118 75 50 0.25145217094911221 18 957 12 537
785 3.8211051790504289 2.7648904358606949 6.8985325712193051 90 44 11 1.2697322952052486 24 970 18 960 21 1007 5 789 15 750 16 715 8 1405 13 1549 15 1567
786 4.2391214314372903 1.5546373937289601 6.0280426650621237 88 42 9 0.98560053239478485 24 567 18 967 23 540 22 868 21 820 15 503
787 4.0673394415129058 1.5674469055596263 5.9252615511676403 79 33 0 1.0311208712185707 24 947 18 969 22 872 15 1003 19 1579 21 857
788 2.9266996204857438 1.7262857596199885 5.8495233362019512 62 20 0 1.3703255968120487 24 991 18 978 23 903 22 849 15 837
789 2.9759432980565359 1.8465632634604645 5.8117595403612876 157 121 105 0.3677552742944753 24 993 18 981 23 1068 12 974
792 2.6322522633855239 -0.10627089858807509 5.1842079267263887 114 74 48 0.63364167986826603 24 2375 18 994 22 1879 15 1677 21 1568
793 3.6949063986770057 -0.099026849635931946 5.0840875091779578 136 89 61 0.5203384832844179 24 1038 18 996 22 894 15 1871 12 665 23 697 5 665
794 3.5253930156907316 -0.11717417756255361 5.0359596324143716 160 121 100 1.6537111467569239 24 719 18 997 23 695 22 1870 15 1815 16 1987 8 3206 11 1526
795 4.2245175601455109 -0.13542756584432963 5.2629138071040753 112 71 48 1.671275324193974 24 1025 18 999 23 696 12 493
796 3.5153166589991978 -2.2565902491782155 5.5368786507247529 93 66 49 0.98670125821021515 19 720 18 1000 23 840 21 1396 5 712 24 890 16 678
797 4.192442374758933 -0.16343519069095369 5.1798832325110764 133 94 75 0.47271082411820986 24 1044 18 1001 22 1899 15 960 21 892
798 3.4039668407553592 -0.25981994761052135 5.0239444490466987 76 39 16 0.97533223358765508 24 1051 18 1006 23 1034 22 1833 15 1281 21 1609 16 1642 8 1217 17 1543 11 1245 10 1616
799 4.3255563435169533 -0.28577532452759502 5.2280791696450795 65 30 11 1.3998131927209612 19 1724 24 746 18 1009 15 967 22 672 21 1810 12 616 16 1789
800 5.4128161690785506 -0.48041642263549106 6.6718592496020426 119 95 79 1.0911578868922398 24 743 18 1010 22 3640
801 3.0605074867670803 -0.46206464513990037 5.223805602600712 84 47 20 1.7332565190850595 24 1509 18 1015 23 712 22 1822 15 1308 21 963 8 549 8 1593 16 1809 13 1736 21 2080 17 806 11 1504 10 1436 14 756 14 3540 20 1734 9 1624 3 1165 2 1392 14 1709 6 1220 6 5681 7 1864
802 4.0339329770674235 0.79705463117579556 5.5161247661271977 139 97 82 0.61046350641596481 24 918 18 1023 22 1681
803 5.421644200118279 0.73773875311909221 7.0098423866524113 54 9 0 0.73686884000709718 24 2076 18 1028 23 1156 22 914 12 858
804 5.2413012129513987 0.41793434165422916 6.8287321701257477 51 14 0 0.58091936135013555 24 2354 18 1035 23 2290 22 1632 12 1554
805 5.3547083034442151 0.33258817784128525 7.0906205351070604 199 188 175 1.3752451172966091 19 649 15 884 21 1936 16 792
806 5.2424134518333636 0.29595885402422151 7.010877122279731 125 87 61 1.0555130145460014 24 1959 18 1039 12 1270
807 4.5076988393052577 0.26334489623079504 5.7194491338423905 124 77 59 0.94673254296278231 24 1711 18 1041 22 1180 15 1484 21 922 23 1820 12 1213 5 1178 16 866
809 3.9944085101204676 0.1986891079314875 5.2099133584015966 69 24 6 1.1022984578908541 24 1176 18 1045 22 1653
810 2.8649046887801966 0.096382262294295473 5.769753748891266 91 56 42 0.70922164810803212 19 772 18 1046 22 1888 15 996 21 1554 24 1746
812 3.6364077148315435 -1.331097721050192 5.619100425428261 71 38 5 1.1806091828219492 24 1437 18 1050 23 1509 22 2433 19 2169 15 1790 21 953 12 1483 5 1534 16 1181 8 1194 17 1579 11 2441 10 1816 14 2740 20 2390 9 3291
813 3.6850609939932086 -1.0146651574802397 5.3338946333193427 73 46 22 1.8405486864214002 19 1823 24 709 18 1053 23 745 22 1279 21 947 5 1441 16 2959 5 584
814 3.4028964249625355 -1.2447390978121216 5.5695399748728533 42 17 0 1.7572901049420568 24 699 18 1054 23 663 22 1150 5 1230 16 1377 13 1915 9 1205 2 1192 6 3972 4 708 1 1232
815 3.807989350711475 -1.1282908219724574 5.3724675298417104 53 22 0 0.32339367234735322 24 1099 18 1057 23 675
816 2.7162108633042994 -1.4446276982311532 6.3104116538351072 66 43 23 1.4329158712508914 24 2623 21 2269 22 5415 5 657
817 3.2778544802951597 -1.2494998509118731 5.6230500906511516 48 17 1 1.4431588878855686 24 1581 18 1060 23 1337 22 942 15 1279 19 826 12 1193 16 576 11 541 10 599 14 570 20 564 2 440 1 501
818 3.3934155671541992 -1.269825202892884 5.6530343147760247 42 17 0 0.55626618760300628 24 886 18 1062 22 944 15 1013 5 1292
819 3.6421782569843666 -1.2571422820253202 5.5862976255703183 108 80 58 0.86365877706170746 24 1446 18 1063 23 2615 15 1283 12 1195 5 1676 13 1045
820 3.9225869780004317 -1.4090587132355461 5.7577067846828767 55 15 0 1.1167930646186897 19 850 18 1066 23 1630 21 1479
821 5.7477168633470255 -1.5728239605953549 6.5774409512885317 231 219 204 2.6651929584118639 19 1220 21 1364 8 824 20 2408
822 3.7470887974758718 -1.3621830804790058 5.6372884062622113 59 20 0 1.6786685360875886 19 2171 18 1070 23 1507 22 1375 21 956 15 614 12 1155 16 2174 15 3559
823 3.9195826087801624 -1.4041167055077644 5.7402530841561434 55 15 0 1.1851898221017831 19 1149 24 1061 18 1071 23 1505 22 1322 21 1365 12 1477 5 1286
824 3.8901917487892099 -1.434653294758355 5.6809336094362672 104 63 39 1.304523928511105 19 1222 24 487 18 1072 23 526 22 593 15 448 12 455 5 554 16 739
828 3.927552244543576 -1.5171078822152979 5.6214242228113278 135 94 69 1.2672148430975827 19 2190 24 806 18 1078 23 758 22 713 21 702 12 458 5 747 16 2282
829 3.3326435355190585 -1.4962412041722011 5.5089874735336339 61 20 4 1.5639073003906427 24 1478 18 1079 23 2526 12 1496 21 1189 8 1849 17 1265
830 4.4738253350610266 -0.51107094793593433 5.4495917082853467 105 69 47 0.80149810272139055 24 1011 23 1045 22 978 15 928 12 909 5 1150
